ply
format ascii 1.0
element vertex 852
property float x
property float y
property float z
end_header
186.56498321599557 32.93246199900123 1056.0902285866896
-282.8600515827289 280.7531875148798 5648.256344707956
974.2430466993868 206.1898334241238 -6665.787695671333
2446.4981009832286 -1901.580110459527 -21078.675962279332
424.0641779699874 107.51101906506172 -1344.5435075268433
729.3029804122441 221.4963650255936 -4595.5307609691845
198.30399448604751 -79.08961139358904 1005.3622947136116
176.69894128058297 -101.79907643157652 1152.937669293047
-288.16782841204025 -297.8353959851492 5905.341081281633
78.5506099842427 -175.7393904573337 2205.949914430341
184.6968405625425 -37.47528850133107 1157.9826990142058
873.4624524482242 840.2615600910201 -5779.062140170903
166.77322248797992 113.50041075762513 1286.7586902142016
-130.75574153935403 477.7503312250901 4202.799547856459
177.79843464134214 -102.74675967561271 1160.1257272737764
200.97054276576856 -29.054345922845126 992.2039743985678
885.0649715628124 222.40943217656843 -5927.368636751309
419.48436497435705 -14.71538631659522 -1273.3816295279719
208.44409217939128 65.9909831384178 870.1635894098703
129.0905516464755 -59.0115459098275 1680.8600492234839
120.8531062262941 -43.25389491884367 1765.0625824408207
209.02619664264492 -121.52188419957507 868.7826481615731
436.5068651655747 152.99970163885794 -1445.7738094935105
80.24461299526511 139.75135294138605 2244.9170524090705
133.35884852257092 7.114779672562855 1683.9881155532664
75.84373763164164 0.46392841237919524 2260.680680336741
859.1618437655535 1130.2408777593657 -5846.87540089809
872.2436552868212 208.23193971861656 -5967.116613187621
210.52464950226033 -21.54353638257607 904.1103785686491
403.99359348394563 -41.73239625999901 -1162.444145752162
947.6782115198223 182.74520663382594 -6763.884637060744
122.30742376571061 -45.669658124096024 1786.190353499275
168.59712133270065 24.293050342543793 1339.9689570045675
215.45588285369294 64.20907443854088 844.2945235692358
877.6685025155566 45.58962316901678 -6418.388895577657
222.09456678316576 6.366909965075326 800.3269354572278
219.31716794562894 -111.08009251798049 824.0913709892445
-55.3845015697489 199.12890761843613 3699.587402196631
115.53310924097606 203.86226060937452 1904.430703540667
795.438734756525 -661.7272412878632 -5251.510930924274
894.3329074005986 252.66851331094358 -6340.115105113976
-335.6515881289776 0.8889035537914042 6686.56476156338
663.4562583104673 411.76048040997597 -4087.9916591266137
185.93775733882143 -73.66324714273776 1210.100067507022
419.29016263423944 -52.749694023859085 -1341.6963090043355
214.2441394259854 17.671155165498007 873.3015228422041
476.8931583650739 -26.079628954338265 -1960.5839105619705
418.69828158796344 226.15498003312442 -1327.5818610231563
157.13634789430765 -141.85842065261892 1492.1593601012348
157.13634789430765 -141.85842065261892 1492.1593601012348
-319.6753586007776 78.32662891001873 6717.03566972023
209.33124633369673 -96.53843702383605 996.8393922728072
828.6842862588996 972.4683009493842 -5872.4133054039785
168.40761445615973 -164.1498743172275 1455.7303509629944
173.50441906813913 -54.079660325618356 1337.7685012905392
155.88924386655452 -38.622135806885126 1539.0856464799633
135.38408163285678 -61.98628688431977 1762.8091330739953
420.56543430684263 -66.56566842705868 -1401.188474731966
120.4352958794535 -59.98568572099636 1943.153298275223
174.62310475460455 -53.994169622437234 1346.3953700217014
194.04997903884856 53.02394535150456 1140.6857757118564
763.2430701892719 -426.0758527058211 -5229.375713164618
137.3045745749197 -60.12688687922695 1787.5715282512608
816.2991700268035 241.44934402207983 -5929.168239246133
766.1481367985173 185.01915945243948 -5358.004030521318
61.50347558297823 -10.704558517572936 2669.641062291923
113.17803498594549 174.097890408069 2066.9393978983976
807.8862410354766 1027.3144013052479 -5871.952427257779
161.62872332809 -157.18798658458002 1617.6743501237254
-24.42136509874752 -662.3445699747004 3716.98325922075
188.20333616756332 -157.2865363913764 1219.1267434707813
139.4118528207987 -61.03704645379711 1815.0058350659313
828.6802802028842 231.35672338969113 -6239.352200443082
62.258485849502044 -452.8353813643541 2785.5925680998753
795.7472212898169 1004.5618701082125 -5911.259776397906
186.56834498965486 3.8563678367778618 1290.6955762522225
796.5083021800884 887.5095958346391 -5920.492875279379
791.8827254145981 1093.2733556671878 -5874.947464241096
724.0253347042341 175.21932633195107 -5063.398894327495
792.1849352972424 204.18055720028866 -5869.1775792908975
746.1632962955533 144.2256722794243 -5325.592638466288
499.2221551137753 158.72662046373136 -2627.790907616236
445.5526099884564 316.0883717139855 -1785.668821444973
-135.16603133759273 -177.59113400958626 5508.076531294171
497.85062377111 167.89168601199395 -2620.095415688524
736.6175690707842 -424.20901254492657 -5227.542719257896
418.03244047852905 94.07655515706277 -1577.275524773792
233.616327818253 -121.51543448415104 764.0147408968701
237.17896739546654 -36.72264953140413 770.0215045410885
180.88025127340936 -145.85365700326437 1495.1446869871809
421.6038311603997 -64.15590602395783 -1533.5004744752298
782.7966139804151 224.01717291847038 -5893.5309095753055
215.7866893779312 -159.8501638039729 1004.8357788046984
392.8816288424773 -56.13086163929357 -1189.2126235158676
181.2263949295 -70.43122714305196 1397.6595921187982
222.48261602817493 -130.4278646253956 928.0384626132587
777.4939310730111 106.82257726607368 -5871.320607317888
143.1843379242179 -65.63174429880969 1864.376573750937
400.0946971921781 68.24495069176244 -1327.9394845182721
400.4488267087063 71.51915189949764 -1338.2988743285891
746.0538764466339 813.5144680354098 -5551.218933092739
190.0992555438782 -88.13472556455108 1373.0168223535188
226.32359122796677 -125.216081107278 869.5436807839806
60.29917642091576 -413.8080321074092 2908.923031542529
398.71995192264603 69.38244582520883 -1322.4807877617486
43.63435693954591 -412.41750843560715 3250.6560764884334
193.46276768067003 -112.98835678012671 1262.3906766092678
773.5258272712314 288.0304739142651 -5906.93779514755
198.34429713967396 -184.28615661420386 1227.5701050264968
13.426580761185718 -509.9523574818311 3546.3679560289556
192.6131266132828 -75.45500911942962 1365.877243561914
165.64229493073697 -118.59680705146711 1620.946571796844
122.80725969863683 -101.85422276974869 2287.476715399875
217.1821284576813 -117.13090182381575 1062.3373003598165
767.6534118957169 845.370075082038 -5929.346659943442
773.7036214256495 405.79816759629557 -5969.121409850152
769.4388763410025 674.4759293149907 -5954.348223901612
200.66145384304716 -56.107271851404285 1199.8754526168111
-187.44913198906957 -656.5279906191993 6348.643053152706
-550.4476173897805 -1563.459194057236 10674.597949028965
180.57397821580219 -219.6422334513761 1472.4928575895244
40.934978121565365 -78.64700326913632 3468.052276060439
226.54917225016084 -56.90572589107351 879.9141500052345
202.4619783407866 -107.32167403801112 1221.821619708109
91.68599689482146 -45.08664882527841 2748.057615206781
169.62319449860166 -41.72792558767721 1608.6416882119017
183.8376164384156 -109.03663609630394 1497.3903912507576
235.9861791475891 -63.35998356131887 806.8223243529898
779.4137795476197 947.676356835952 -6177.474356068958
-69.08941025434433 -240.0858890295508 4710.980788766183
92.2594082599641 -227.75646022471105 2738.0417432422896
68.78760512534029 -495.0940933263038 2918.0889638965527
756.6095496668564 206.00911651124557 -5946.472314069735
752.8141495534827 1000.8568256544849 -5940.575354776165
98.90170213573829 -44.1048165362432 2729.275514837062
206.71589178093066 -49.62441940102462 1170.2222631999975
700.7754976998677 200.41531284419213 -5276.018221329083
0.16656942553864595 -526.8693921543131 3897.037460295257
169.26240488367432 -100.1934471495107 1745.144742187789
235.12277803607523 55.395529383597264 799.5934350323238
230.75939266457615 20.545720477311665 867.7715043365655
186.69457171810745 -86.21640674710672 1440.912147051085
-287.0101286441682 -352.20082225910534 7650.561496552594
-287.0101286441682 -352.20082225910534 7650.561496552594
207.48809064643157 -156.695731878384 1180.0251104454562
170.39918044744243 -161.4678779303722 1700.749533476601
917.3738334218748 1280.516392152486 -8132.220492306184
-3830.131461138076 -5163.140266735615 56407.03050083
-81.3558964793345 -495.5825786284999 5160.39258480389
750.6645740217679 777.6818758256506 -6030.230711915986
7800.632449744356 8301.130773791405 -102475.18139051099
227.63020002381492 -116.14559677334618 935.3439256965908
227.63679693375687 -116.10791462657714 935.3658151289094
5561.950878480548 6197.004880893592 -72749.62882926995
630.916480502891 122.13702362142683 -4503.0328436390855
145.64967712696455 -88.49676290789982 2039.131072268551
234.42920754194756 -121.04281944003422 893.5195156913317
143.42101121751557 -86.81333509783852 2078.09076405151
4022.2625915362282 4305.045454567917 -51680.9811483118
241.76755796847368 -35.89185607937163 800.8301216084546
-273.4251583748893 -622.2980776067585 7929.8000232154845
237.75049124216068 -132.98263871196338 807.5585458082403
86.20726773965632 115.17873385221095 2909.9591742850994
371.08827069771917 109.46872642887757 -1069.9322512129859
728.3360465547581 1049.0333921536928 -5955.53765286329
222.7707166770097 -115.3661532679096 1030.0070986566407
1484.0434989131866 636.3360175317803 -16306.086851604932
4377.275310944545 4699.641895862377 -57457.79336059834
727.7799719805779 853.9432739179238 -5951.3732924867645
615.9989893036703 674.9666211112554 -4379.153969031481
229.11240522101403 -111.56952734163744 940.77287226291
173.9098318926584 -147.53804832266457 1728.2297442763115
615.9045951409399 119.11121651136013 -4395.894124012197
397.42335825656806 -12.56902832461254 -1471.2337788999807
225.42602116355508 -109.80639565667394 1001.5360075002609
-287.6495398602941 -673.828743665755 8298.595239565186
229.65741742677895 19.560269468833088 943.3043017348546
-212.63865285612684 -173.48791083446804 7082.05757370947
235.33053370610753 -46.85888837746033 953.6179280028374
221.00944347501607 -37.27765227705549 1106.3953539574777
-45.35331762801289 -212.36644215821116 4826.950867435514
436.65181865475915 262.80301147978906 -2001.722873659125
378.2266498076871 40.213193484717586 -1304.295804971347
192.72284707140048 -138.9682724672016 1572.3759442465907
193.48316323237967 -147.90471259748486 1484.7516931699206
21.54607384932289 68.72097047276894 4038.953538939226
178.71830198001442 -58.095742583733724 1723.283915756542
131.66326032122004 -137.26117337967335 2681.3128621559918
240.56576562873062 23.144174767487105 829.5137710040352
225.44330049932393 -67.79538193517978 1041.2389080754265
-71.72033874634393 -235.12821323284825 5359.5518768944685
392.6680788056538 82.17732058342571 -1467.056832530429
615.3707970389991 164.2014036070013 -4633.640313898808
242.70518684250098 -30.157695332939312 803.5643724614738
238.57221770753782 -23.880387128215368 865.9535858972026
226.05576346060732 -67.84980909620039 1042.6383836634452
233.64997659212318 -138.5667273359803 990.0165032712491
727.3062966753439 231.07371491128652 -6329.453809567319
157.97355782047057 -105.25375919351248 2061.6387698055423
-723.2242177617335 52.7869935067007 15159.442271456419
238.1446013192518 -101.24637073035909 940.8636670681028
227.39761626893164 -63.658160940896984 1035.2639316274017
663.7786939953842 495.9349397719714 -5399.925208101199
396.12910111400225 -49.899575920460805 -1495.6918338530766
1254.977261757459 636.2567028913126 -14198.99856837154
3.2621916609286803 -428.0065127291398 4369.191086968103
227.30224584311773 -85.0208184411548 1047.3777044616631
243.31241403290113 -69.65909017842152 912.1847998189904
108.73045065353648 -90.57141159416616 2850.639883956862
-84.48761118865085 -319.125958083803 5741.977645949904
696.1905775305256 851.4943084103767 -6018.102928416124
222.51501425185714 -213.59684953033067 1147.5717864069657
697.6694153302174 234.19711262385545 -6019.304051040702
521.6842648879788 609.8054715807248 -3406.2494748021154
232.85045141039353 -50.204070516343236 978.4480986432521
697.3549829782688 260.01206443584914 -6052.672340565316
697.3549829782688 260.01206443584914 -6052.672340565316
179.762037708806 -67.15666760975954 1784.8483408367856
211.49496589570427 -93.31113989444823 1439.5563085463211
690.971494861554 1015.627321773453 -6002.645811146073
237.74975760924147 -103.70696332509175 971.796610332291
690.971494861554 1015.627321773453 -6002.645811146073
703.1305843357536 1077.3816087919954 -6199.324429132121
693.9060340541712 272.53555526659596 -6023.9995796573685
227.987655184033 104.54687954974827 1055.3328933689236
694.4181493000276 306.84330792941944 -6045.862625197725
694.4181493000276 306.84330792941944 -6045.862625197725
244.819332648853 -21.75043183620745 810.5779210495559
690.1945921463342 202.8982124761118 -6012.47543845444
204.32366879355257 18.67066760997837 1457.0635356380171
240.2236307734123 -118.6032066141035 878.7367587639447
681.828415623394 1044.4990803757053 -6011.628434489095
994.6807760491243 1836.5558793699674 -11309.879434213899
106.48246638941485 0.5113237495322147 3017.660810417253
373.1541445743019 -52.76940104973944 -1204.589094211383
196.27899776655883 -138.93501240326287 1597.1815186670071
681.8506501244328 259.60259798232323 -6075.364171930317
679.398464710416 236.98153617014034 -6040.919862426978
183.17508863307503 -67.62124294120883 1818.6605819065887
-112.81934862759306 -260.39959261135135 6508.722094455297
230.6280847774842 -41.60136164851452 1071.3870591025322
223.77932000918167 -82.94357052928916 1197.030008905261
-359.98843561582004 468.4930894097936 10826.871515758938
670.2682151634652 311.79187563586146 -6071.952870916291
217.31952099740715 -48.29545046914894 1316.7210128625518
668.5664829224174 261.8040602795269 -6097.5791456175275
664.4732045303064 281.6730301996646 -6047.81185683532
659.4683184224557 870.3848161218948 -6006.4503207881535
659.2280254678227 856.5950083553706 -6019.029520300034
247.30245040248406 -135.96626686048617 881.7500359281403
65.39693165477975 -622.1353907465835 3979.6047213205557
248.62713424917717 -62.10509633656681 932.056104619137
168.22495998741837 -77.15489427422388 2190.4269978136763
650.007542077826 1016.5576422993273 -6020.932545334219
650.007542077826 1016.5576422993273 -6020.932545334219
-152.7501919199836 -181.81600189394578 7727.514369863615
11.59118260034156 -482.48574110311364 4836.632506210805
482.08853495407925 545.9780462156023 -3153.721248309122
41.595952024789156 172.77663814386742 4442.910148024661
183.47517611763507 -216.25314695275082 2037.3515589790275
386.46350525517806 164.20024846337776 -1552.2439760285583
92.48026450571625 -132.40413207351372 3547.6315733875526
867.2242808043987 334.1674701437382 -9804.074554353861
831.1388114092307 522.1451700617516 -9198.47469444511
248.1210646224724 -3.079501993778343 881.1485815712986
648.3955430680517 330.4429948103298 -6098.394822195418
208.2904834306952 -147.5427078353471 1565.665998041589
154.84226758149495 -157.89157079519487 2542.915927962783
195.85817770361194 -74.5124432055929 1919.1384325739552
225.90214732515128 -104.99622032494429 1275.7193771857058
245.94233886140094 36.45649906542907 953.6704610634463
-13.530350397523089 -256.27343557369994 5531.707173947575
-188.6774421441678 -182.25835759136595 8723.644313683864
192.19688115016893 -150.88815680740993 1999.0730929768777
628.1621205112558 701.3838441733494 -5895.705727303908
172.38982724821858 -75.76747283455636 2244.356216447433
189.1639256115847 -93.23514029322499 1948.7423200732198
242.06605530428797 3.4687659956952683 1016.3054416931576
636.1976151898995 262.02578439881194 -6072.7284307846985
202.89183930406432 -126.95368045606938 1715.1697931701467
437.2301210801133 -137.29584729936414 -2470.1240494643052
437.2301210801133 -137.29584729936414 -2470.1240494643052
195.0611779815669 -69.59377486290272 1985.988328789726
-1607.920000668441 1561.2097194074172 34308.5200628751
208.47520026428134 -66.61653283213263 1640.5009422441133
378.05485417475484 -52.82344146084935 -1477.8506803951093
233.59230876658197 38.51033429646485 1226.5245486127405
624.438534765934 273.8654236930144 -6049.225274748851
244.05148576761243 13.56143238483254 1033.2119383770412
626.3971484016898 316.52841030336367 -6089.127497010928
157.1154643412945 -219.5177021610437 2632.4147559718704
176.2332434478277 -80.98450771962102 2294.70549403844
244.6781999840788 97.47851202828876 1005.7163324246884
487.17153928824604 139.39607827630448 -3538.865709528822
504.29783343671136 164.8511572426534 -3865.2888265151773
424.5718862670404 -81.06395612679616 -2377.0622372098674
-2631.7916614357564 320.06578385051745 55267.87814050306
615.7927226512672 1107.186326110257 -6023.0451100066075
243.0231568463971 -134.88203370925044 1082.7164477066324
611.8909842749392 247.34132727751472 -6000.442726834762
574.7721256889962 -424.657892042972 -5250.7875552676205
214.29426463407472 139.33823127575045 1613.0929646589832
367.4903114920577 -51.89262199687402 -1342.4747112545022
610.1009196704724 214.73516241908703 -6044.368442865282
101.45302986914858 -169.5244630072924 3898.985998127464
177.25846715222067 -309.15043745890546 2467.691988320622
602.9225319303814 843.73978425228 -6073.9572351621355
41.434520801528116 155.58096841155265 5222.145985823744
252.87635588389958 -92.60654757352 993.8720646202725
109.78663669376485 -599.4562200646142 3827.4294904769417
-59.32058372534148 170.05470958546476 7384.945440304036
597.7044705600233 272.4510820175417 -6064.407936848752
211.6072240886684 -105.28182642481678 1782.6784676299512
567.3131987283556 -692.446575141519 -5409.3416428061755
247.2488296943145 -75.17712000658754 1172.231539654989
254.21667809628244 -90.71532822663286 995.9910964836356
590.00185522243 861.9723805533865 -6063.791197218264
370.5953646816897 97.85760893499413 -1472.6361588263326
590.2401003692877 259.62807854053165 -6060.326794628208
590.2401003692877 259.62807854053165 -6060.326794628208
340.18087988461025 23.862595474914905 -1063.188931400399
587.510260859268 270.17492524257693 -6082.445842345206
125.15575603127805 -588.735530712924 3658.162862484684
915.3113918150997 525.8500608725097 -13026.94875614573
248.1501634868392 -127.07438832559272 1135.815629001696
167.38202735866003 -226.17252289360553 2804.9801483406086
48.36036094190524 -308.3608084738232 5376.441590416715
123.9682744284701 -626.3952553142524 3807.495276258036
583.4163424712999 208.52662786804973 -6083.533765789949
562.8189834008759 497.58112912646857 -5661.208335080388
-709.2535405520025 -392.8659048418604 22433.73583812275
557.889864862564 240.96459234284222 -5781.219764730872
-728.208707602689 -328.92618872740303 23107.295345629245
208.13202905605525 -56.41729731032392 2053.9434738949735
-0.8112682812056009 -693.5217797197298 6663.7114248253665
-193.13212712253028 -478.6240894542624 11119.383278356045
-3.001183501480346 -606.7863174619616 6759.5992958241
9023.075118820807 16360.670209204189 -197458.35692069752
-93.98010428055835 -364.221930749728 9005.715295821226
680.6114400959902 322.73959732860726 -8718.837990672546
586.1511292467225 374.62385395906415 -6617.743834282439
586.1511292467225 374.62385395906415 -6617.743834282439
565.9519012310673 277.16291570371715 -6126.491100020096
242.96711973688096 -52.40693340127222 1306.9502447027344
443.4258002732982 322.7545971537397 -3291.520283560477
181.28300523181792 90.67113076309411 2858.9842393153012
-111.16851140047547 -406.96156057885844 9756.439559411152
251.37041589751902 -64.80520416891264 1158.8470892770288
-1141.3651081111445 -1323.5850051855523 34577.077581498066
159.59604389457348 86.82478238871417 3462.9174471083916
194.917987957635 -85.75944609127173 2537.6550663784938
241.58512036476745 -97.83963601760325 1571.7227990886379
260.48887187312096 -10.60755138577843 986.1000301337175
240.659477923219 -61.12640680590623 1507.8018839355375
267.5513134551338 -18.13995615598232 964.6883571637386
536.627588355984 180.4814378385952 -6152.944033827907
341.29066133826774 145.8942512227298 -1066.9425651038837
228.3088426812887 -297.48460104896407 1882.7569161085662
255.45600447674028 -65.93884690485079 1177.685654122215
807.2187209688899 427.9331126072285 -13356.026970576393
-172.1985791954535 -288.42937539451015 12667.090560587678
234.81719884223537 -126.53613245727087 1905.5282462921891
259.69411173476266 -67.36607783004855 1254.8206576835412
192.08406732774716 -94.16679848654373 3395.6168972566843
233.75640770101512 -74.86879702321505 1839.4401850340676
205.19200440979222 -90.34789178024836 2671.4157202464976
351.122455616784 183.88446720392076 -1466.4892094163527
513.2156117129181 836.7205956185435 -6185.066613311741
377.23518869410236 177.50017396228876 -2365.8787318651
269.913916995277 -74.80409253957791 985.1170033844407
239.76994819149604 -164.88691556660376 1898.5669160064222
273.06211092855176 31.939423549516743 853.413608245177
328.8246498370755 49.82112448560334 -965.1125905867301
263.1194337536301 -67.96642244621829 1213.017241277729
97.63644918481796 -89.8190131107368 7893.873145762527
274.54245567948897 -130.89158386524758 868.7742151678581
362.93929104756165 286.67716308952777 -1995.082244885335
263.51942106012115 -68.32484939344049 1214.8725009044374
207.29341912551646 -132.38014379854272 3703.683094093314
340.8206692224922 97.64675483909 -1338.6822628374744
6362.269163861737 7652.555099494859 -206490.8270717865
241.66486291690265 -119.40655711937076 2035.8062701167216
514.8332229490925 271.90497860468116 -7330.093692435188
477.7578269097615 873.4801419948218 -6192.69279360433
259.4883081781987 -72.9905399984537 1694.3960557590344
252.7350799951715 -114.94318746942906 1944.3263715149724
1194.0565110841453 3022.174365834738 -33864.339568418654
488.24911866766337 249.84071204388778 -6569.893072517041
330.23895667730153 52.75771561022594 -1152.036771452248
194.4691356340257 -609.1980569927738 3686.8928003254887
1654.4998959807456 8315.73889232782 -47226.79015183134
496.0335660781676 261.20657739638295 -7062.490439410677
276.07687788590584 -141.81839813809947 947.023195325726
637.7660332287047 1812.5891497237105 -12366.975412994843
221.92893464303907 -97.7732637805439 2889.3174308476773
267.4841918486478 -69.027855137527 1233.1364843706538
276.2397057997833 -141.79382333467024 947.5681394404916
224.82626484888084 -354.48775831939696 2974.6571748117194
231.0651885992109 -295.30096090558044 2759.0555484813444
334.80746459723804 -57.744952991836875 -1273.7428096999781
3192.602216498682 13851.446485987108 -108066.7800481171
1327.6114966457783 4699.783442360916 -38494.393487930436
3192.602216498682 13851.446485987108 -108066.7800481171
2226.788548389757 2743.7755730075055 -74244.53311626654
240.66642161777256 -218.28405841082534 2635.958699671655
460.7885399386339 237.8993336773805 -6200.150870201547
334.7235948844141 174.76952494795935 -1335.3355545704392
118.32658496122568 -529.4898064203744 7409.997566185688
280.474542591469 -47.40084833066436 1029.4218398443518
452.04852057525 880.0394808308998 -6260.373173437062
243.26254528388222 -29.30389972521963 2412.6845843866045
454.39202948015367 228.41718739762493 -6262.6202840745245
272.67374036904437 -70.45087727438138 1257.0646510515135
244.58072016904094 -291.4191577579352 2717.0415092360677
281.81167700808913 -38.77295028408503 1141.8770713008953
274.3945830559017 -73.33775167910119 1260.7721647695637
443.53078276955875 245.20723905193555 -6313.783106898345
269.4373315445739 -58.34415917744285 1449.3442550384048
127.20430983172783 -854.6002436084286 9093.992534371793
277.05439142922876 -144.7855800029314 1268.5216299985027
277.05439142922876 -144.7855800029314 1268.5216299985027
1748.4613505165894 2239.813304760878 -68625.80428628414
431.42429977754546 526.6456135272049 -6237.858492000234
277.7822799647828 -138.02133711610765 1151.3157729419308
356.0197507255552 89.60193843796581 -2680.881825247882
274.7483747200722 -121.83750562871403 1700.9029534783122
406.10273162845914 637.7244344922623 -5778.070910454624
421.77583376296076 181.839954089112 -6252.074849934942
388.90673927833564 533.0578589966343 -5989.040215324733
287.13171374688085 -81.50194988498232 1185.273381005715
281.2158383030638 -81.89136436036878 1298.6821686743879
402.8633086112741 227.55413250637133 -6184.515454562639
205.40442485657172 -219.3812266153427 6071.009959615075
266.05058555171945 -136.87970495267203 3041.199545971906
396.1383887788564 865.2653517388766 -6230.973385286037
341.8105887701283 85.9863407459096 -2573.884978355834
394.18067418554074 837.200533461327 -6254.998411889983
284.13024956258124 -80.74173442485065 1248.7671535429527
391.6202567413834 213.72313717709198 -6158.787309760327
386.831416732843 858.8674113877684 -6247.285597118994
257.83014609584325 -113.92711347147716 3356.7309948725374
287.4080165314442 -87.73797704319861 1187.648011908081
277.2641348080047 37.0835574352955 2317.3476604589155
287.08356332622907 -117.39017726972567 1867.4523844556225
334.4275789435095 84.10172172715274 -2518.289983939077
276.91925198085823 -234.19982106030602 2705.3159479099318
378.33572006945553 226.51744247055598 -6257.7888004984015
261.7927276660393 -115.73675841469904 3408.3225447230957
191.32670240640934 -821.9660625555912 9089.197566360077
289.61297471253073 -178.00992094504136 1260.9712580460343
290.8900838141021 -156.4156322927384 1230.1862805591593
-16.506137993110656 -2456.029169096309 29204.01743214613
287.36815205862644 -160.27416423891134 2484.6895966207294
352.51822987141577 906.2210114475255 -6263.531568669255
291.624242978098 -239.999317010589 1494.6684185075655
433.6894042439128 556.4915408667214 -17021.756247031797
321.187710997859 80.97243925406372 -2418.5903934556563
346.3696049793461 936.4297761337583 -6310.925138724284
306.5048667360995 64.764075738862 -1632.2652521623907
299.75203536468393 -182.49522471205157 2448.502562832697
285.66887478125216 -126.27911523092976 3719.169561707743
303.1186669314578 -124.28077388210721 1971.677407215153
294.1007204305091 -473.24515350776676 3897.286217799417
298.8869107374115 -93.83272746963144 1358.489945313445
302.77585302586607 53.4803258397588 -1003.7271226784676
300.36138581489104 -87.41712660349583 1387.0955012798386
300.36138581489104 -87.41712660349583 1387.0955012798386
302.2398768303883 95.13571470292106 -1326.1842330651527
302.01127349911593 168.6674110354054 -1788.1593246460302
294.79493221336025 79.28762501151914 -2507.5326907704753
310.9758082910141 -42.12721168726647 1535.0317121920539
296.4237445457548 -328.62430497561985 8763.85904730874
300.3330145369496 11.396189840117918 -868.494305826594
301.7582178239703 -1384.5023875507898 8792.958080358785
304.2960283200042 221.81348910777803 -1541.9773877969067
302.20396513432854 -1386.5285505614142 8805.932890232778
304.2231965628534 221.75770417118522 -1541.6085464833786
300.29182042430796 847.2742529437807 -5828.134973322707
309.17233223860626 -58.68019021963115 1065.7661478545497
297.7627222926726 888.3794818456889 -6357.301488656851
309.90476466430704 30.379576746053395 1433.431961784768
293.55410535026715 -125.34566377283416 -3556.459927688424
306.44996741185565 -153.0301768088196 3990.818199476412
311.9721129711413 -38.69585563525943 1326.4307080228905
288.8895615446863 -158.96699529740764 -3534.2553383580944
288.8895615446863 -158.96699529740764 -3534.2553383580944
305.47802803924793 -207.01341569363453 1211.3667156899069
318.14063009136686 -845.0774074914586 4053.562157183696
276.33587294961404 1795.2854722559775 -8768.089077070064
371.50521642999377 -2367.4296788613615 41299.95724767089
291.75496509170256 702.6373128811615 -6345.684916943138
290.3163905978071 -114.56856097364363 -3531.4125497937944
291.29535782472254 -100.44706674818242 -3244.6069029475248
313.3314446121307 -37.32905913883072 1269.617569263801
289.6131014829843 -99.21353734984183 -3285.328878971564
289.6131014829843 -99.21353734984183 -3285.328878971564
309.96433290166715 -100.99679020982806 2467.5672457054534
289.76633180986204 206.96212791476967 -5608.479671037682
317.3780481703962 -162.89326945467374 1240.2099597202478
315.466837842068 -134.02535289497945 1031.327075936883
262.9552611976866 1412.4709950740225 -7179.833076990319
331.01481740274227 -101.76339459007332 1754.1762530511983
313.06804779165526 -50.061028180036296 1037.7987551884196
284.7790793669701 -93.20886891232041 -3236.493594764716
285.09929639237663 -91.67145269984273 -3184.676002930441
314.1958910745828 -159.9968367345479 1500.9087522724867
320.0339128453429 -342.7176649341228 1869.3048712408695
309.9041456104753 -153.31579987462428 986.7750915324486
292.231502229518 214.18212924519045 -1364.5530286989529
249.41391545173732 56.69442642080014 -5105.052630921032
441.228860888772 -126.53925699465707 13177.702772144312
291.69473770236084 82.97098441390455 -1495.3515540162841
332.6108805942311 -155.45198503920344 1826.3203102205966
291.70379761760944 81.59585902795165 -1429.3008785109344
291.66582844352985 73.29866505409196 -2196.2878762214136
331.6416140181051 -174.52415384434175 2682.7081326399552
331.6416140181051 -174.52415384434175 2682.7081326399552
323.8533788854908 -148.8460926946283 1982.0739427576616
374.25612945836565 -402.08134219122627 11062.128742479134
357.47056670059453 952.2756241547746 8867.118898977878
289.88190389400177 86.20156144274675 -1406.2225878216066
226.84503706507303 42.25983746774397 -5763.606311313569
227.77558277628864 1744.664477872678 -8294.437350525437
314.05300827924793 63.410993869923374 1029.561238968765
288.13883302055086 -25.2517880805988 -1703.7964298979907
242.513352332672 254.17696917266616 -4835.862293843677
328.30511291420146 -105.92931778431864 2583.45044434176
229.0768775033087 1103.1957882586244 -6266.523941322504
242.83241578442332 295.8863658846297 -6473.561796046048
241.67157057676832 125.12729340004499 -4404.870147648372
238.84535903208703 246.19600780965544 -4774.428511664421
234.72828087212662 1375.4175254720906 -6423.24359291274
232.67255368352232 1351.402990327855 -6400.874996942507
320.6631569367911 -139.3947801461811 1202.6295924567034
326.61983924065873 -354.3817335309583 2136.732772244039
318.0511595894141 -104.98980316304004 1192.6244678567393
337.00955815103083 -166.03350983509702 2838.945906748382
231.338306408079 914.3468786996096 -6329.708981063521
289.70998046377053 53.09461927819635 -809.6463597643756
318.2395769551721 150.0193863599634 1271.376786438104
262.0960467422213 138.72787166496963 -3731.6463568060003
330.2855818602072 -171.34398115923696 1298.5598331314188
371.59709978740204 -974.4182532739023 4724.9986407793895
340.16239192925144 -140.71019136511632 2170.6872677527494
324.2324584540527 -152.694350891228 1352.1234674666664
223.13827827135708 1108.694716086622 -6343.043835218343
223.13827827135708 1108.694716086622 -6343.043835218343
294.2113893936611 106.9114824717415 -932.4361625098161
228.84019228681396 279.0467006239948 -6100.490268036387
261.5363247296772 139.82776916217676 -3432.441884834232
367.03628066030984 -173.06668218408936 4818.123229106435
1441.4712189318734 3210.3236873397937 85825.87143779895
165.83791323662228 -997.4801244999885 -11969.787810363343
165.82606007565371 -1008.2841008345972 -11980.919534956474
319.2023526716544 75.50149179754042 1095.9731282842563
63.30528715252855 214.83946577847607 -18117.96942138361
507.5367271939035 689.9024208585546 16349.123338093914
165.37187501073305 -978.3396867572297 -11916.776130287653
165.1726584905257 -1035.5610112062575 -11963.993088017502
267.16113589745834 70.49220976335624 -2942.692097755048
475.6833374477386 400.44460606470363 13399.649284943574
478.02378877780797 233.43610325346052 13453.760622064154
269.0666792828273 -166.6023063417974 -2934.7852107305603
218.79528693017443 903.5938001381089 -6365.262648554038
238.17314917037046 -185.67468144932855 -5297.121558871483
163.554023624082 -905.6976722287335 -11697.919182919899
342.3274147697784 74.65244143512464 2578.6708913773055
163.10263194956642 -806.3192960425237 -11484.759310072519
162.270744491331 -756.1827500266083 -11322.757637289926
327.6953228171728 -139.50649957823867 1071.3102297390574
341.31551968760675 -110.02409451167621 2685.829681229129
114.42828191168678 -146.6525278971482 -12844.125049988332
327.9010359021911 -112.97902691810044 1309.905155825623
422.0569248665355 823.2858313361063 9165.751638786041
423.722104029753 20.492019693358667 7931.775569170241
278.7193732089484 57.46498899299485 -1488.8376633727603
407.7830950212135 -578.9179101589339 6256.552634158579
257.564265532805 128.55036508042173 -3466.103372914365
449.4561012440631 910.1310823816052 11196.514132703307
518.5245647844553 489.140855847895 14919.916068579249
138.0574171220523 278.91450855000306 -10650.043130598662
390.1298399034363 91.38460113842969 5780.731138385374
425.28064705778945 -2.7414461093011075 8155.204840472917
426.43124445066223 9.840926477380654 8188.6471856248745
424.07286858468626 -25.817985377722433 8112.20145659537
285.87528520581253 50.678412686218856 -1072.9638228519682
389.8089664753885 76.646917440008 5766.755930980603
327.2626875703933 122.64901606804645 1644.7523045841617
423.400699370788 -40.64727317485161 8087.265861536134
424.11390764048923 -30.510836216362318 8109.1171425089115
422.86829159356324 -55.094462658157276 8065.8561936037795
389.1326485720976 53.87404389703063 5743.549718379873
426.2214751266009 -11.069609809952357 8165.939374490609
330.0198074935708 -137.9941561671955 1437.9608786060355
284.00144656858276 -96.92885110328805 -1606.5050796330315
422.67248131757043 -76.29068623760261 8046.625992979186
356.78245022402916 -313.77307500580395 3093.445446671882
422.3437967176122 -83.3328871681467 8035.43837301574
423.33333954299593 -67.8928885207712 8065.288782620099
289.05655905053453 56.71202067313437 -949.0261064132172
283.3647703500474 -75.91872883447435 -1596.4721380499568
283.56231934652607 -85.509728938143 -1600.9098874856597
137.70883977671969 201.2449540641894 -9132.717101905182
328.43371797957246 114.74112214720707 1528.050215332292
383.48904840515956 100.97265835003567 5073.525956812886
324.27923661088965 19.040535043403164 1303.5688170263222
667.5015345875056 -4020.96468203345 21440.943926211377
275.18817283195693 301.09010446916477 -1768.6544676018327
259.6705594607839 403.9871957784211 -3016.0821447586054
404.97973962516767 -606.2074125908964 5886.409140383988
321.9052894541499 59.982278815727 1080.6325631283432
427.32166462183176 103.35109078752512 7668.7541702897515
332.5591368209817 29.408869504209303 1548.577187819657
240.45272332704985 -473.21230492944534 -4597.162365967821
240.45272332704985 -473.21230492944534 -4597.162365967821
453.8619621278277 856.1984529437299 10551.533279648202
325.32821987797763 78.41433865957475 1245.0987906797932
267.9731714393443 -43.171394452655605 -2403.047978723953
322.2565349000963 60.961103162554345 1081.857961579313
428.4380679819296 89.18297707182762 7675.643151525598
272.08704762508586 -35.3535856859017 -2142.7499075229766
272.2060679892201 -30.66704615982143 -2146.3576577044005
323.9966661805268 111.2926286719492 1205.2248098526486
290.70952510742205 -47.343233898985446 -947.2885058054203
272.1589393997933 -26.980029157108003 -2147.9715638478874
176.1126764984402 1208.073141133945 -8222.079139691117
273.7845744991656 -0.5511509332790018 -2082.989746506299
273.7944972145274 1.1391211820936866 -2083.6283054405926
335.54585427275 95.47326314347676 1921.1104625819808
219.2990660021167 -490.43434273581255 -6094.1677751709885
270.2240397728675 -9.298580475446364 -2292.94060052563
459.5076371512583 711.3596334236025 10659.947154192001
458.250762334458 725.8946263546284 10592.748543596492
276.27702337425296 -8.689238722086222 -1875.3445662990107
246.48035744378942 27.854081851382535 -3853.4448436444654
270.03991135532965 -17.266803128472255 -2287.7765904274147
270.1674879347332 -6.7626921306942265 -2293.516759069977
270.1674879347332 -6.7626921306942265 -2293.516759069977
273.6839232423261 11.765975878295452 -2085.887693604278
273.663975750922 9.739776212461585 -2085.2030906941955
336.6544680460772 -28.883758091151936 2019.1467668980824
275.4518548955109 28.393022150127607 -1964.999644708813
289.72323665224917 -19.45080369324297 -961.826793281491
372.5087190253901 -135.01951502829868 4308.588234504538
275.35281241035216 18.146319184317463 -1962.668890128695
372.7737207909608 -130.19469190440776 4312.63301909022
273.3623699666787 33.63545706935501 -2087.440055405113
231.52914638126353 -212.25683746334175 -4830.54361133079
207.24303035799088 366.7315827196486 -5258.9871374644235
285.9402295447069 -3.383343995134929 -942.2656153109024
1070.8983517738181 -1263.296927709179 30321.783547600688
332.5605483183481 7.301176054716415 1427.1212843466064
733.3320524108175 902.7710283780916 24462.16531649376
332.4865532842783 43.69659683608516 1695.7279996969398
251.71979361843682 -52.321662413820235 -3123.5131231118917
79.07370116243722 165.40622374540587 -11741.363763977517
277.48407347891884 -16.71962436004679 -1645.596297985802
345.88111965130474 207.24992946581023 2599.736063271806
272.94699326743535 -62.90105227056166 -1817.5306529728712
329.2541471829281 52.564520963396845 1342.4242683331684
407.6591917726661 82.63916411586249 6032.352438093984
429.5510633509338 79.93643190724795 7239.444685634253
429.5510633509338 79.93643190724795 7239.444685634253
227.86581060270123 -8.909062855532275 -4786.00819849472
331.6349370020327 47.950353941550006 1553.8623905073073
329.3832918000543 95.49905273808814 1389.1939159081774
394.5524734533947 -939.7542548310855 4951.657487724295
394.5524734533947 -939.7542548310855 4951.657487724295
394.5524734533947 -939.7542548310855 4951.657487724295
394.5524734533947 -939.7542548310855 4951.657487724295
271.07159152799636 43.94779767432946 -2039.3731626394547
9756.498246299072 -36032.684367168375 517283.35641798144
365.0899424650269 25.7833528382605 3460.528968750082
323.88998881220965 79.60500591190839 1082.4611392598274
354.22621709838535 -160.4531031306235 2789.78311475279
286.3802209407988 -48.429924199829934 -1093.812334597046
330.85422993553163 -99.41036442778731 1465.299284188817
-55.35916135497085 1181.449271388952 -20719.373853301397
291.3678485725371 -51.978082398031695 -857.6393646195879
754.607902130983 -331.2459883029913 19556.20619822192
222.05576678191633 -238.33808002892027 -4915.744112563765
382.33039952281797 -379.0534832267659 3308.3453138313216
223.56064705883077 -332.91296796140125 -4615.057088675524
485.51741651665867 18.695181649109973 9725.111408159963
221.36121270229086 -202.1505318977183 -4916.4521010261205
475.48420046168127 -103.40259429467763 9416.560291808315
333.9051832104881 23.430512466782996 1602.2982804810943
144.4482892809917 -139.07287036340182 -9298.102916761829
330.10277940441017 72.46498148562858 1421.6013769758426
328.9356732144839 39.93192412076905 1323.945608044073
354.2565083186611 -33.50073416200376 2679.45182111485
139.6318378534178 -176.6467409899642 -9461.999999637746
344.8513248675872 82.12841125158407 2233.243584502477
327.21180480581535 44.209302083121386 1210.6995977940721
379.37695609048035 44.051794342826376 3705.5741722743496
365.9517360183954 105.94300352191495 3375.3989473811653
173.22010618614698 68.29598254182616 -5567.969944710796
1773.2525022024574 4776.153806034118 79753.59310963584
220.3779836889648 -90.85576740070861 -4800.678662141623
537.9497796736149 1313.39655613696 13461.641008500774
389.0516067533217 -208.27524783481167 3010.461575135837
187.71689684190198 885.7370520932776 -6345.148620075012
345.9833580723414 -268.8184053439194 2235.092459456994
438.2483365713783 266.11551103764316 7314.925186386427
447.626837167544 889.8730301485716 8144.154238944173
214.21059252983133 34.726369577838945 -5027.921430649659
251.8425682362459 239.4402059622152 -2635.3596611966477
219.33753491723564 -428.5014280136397 -4852.232746547639
333.7379523117863 -135.1261590246738 1090.9312513693212
437.8054180526769 -464.9310918448208 5898.938814671688
158.07205899412855 -520.7041903445097 -7216.302171361519
261.5758519306072 19.938750086442322 -2316.6096008247305
158.75987463014826 -978.2432386092565 -7843.594714643124
331.0434166327355 136.0314367658917 1245.2411830940157
433.9471247106149 165.96871380748317 6209.961269306342
532.8647354904704 1217.338930660464 12433.670788071662
532.8647354904704 1217.338930660464 12433.670788071662
101.60884948272954 1320.2930626247107 -10071.384216118275
334.4089559124116 -137.60714487218155 1123.9380803746712
340.1449191045794 -3.5320726371135818 1780.8840991432692
196.7527014029519 -88.24533605740923 -5429.369585274211
214.39655691008124 -160.70254988494415 -4814.652933447123
339.68870443891325 71.40530051621501 1764.4476416403
728.9117461268509 273.36745858068605 21797.993754396754
348.64889603675977 -309.0584871347649 2267.3586517610797
284.5149766646277 -52.94804965952877 -1089.964193495208
556.0188731657859 -1035.1678994213594 11189.070229134992
180.5625102021112 208.90335420442332 -6279.282711396355
288.4311234292385 -97.95171366182214 -945.1415946125436
251.35486452410245 39.4469505719711 -2720.375371192378
173.06992396450804 1246.9574214717702 -6370.104340322371
443.6298784704125 33.02037978058506 6831.875449872394
631.4152356084302 1941.7450958816378 16190.906124789992
352.94385875416805 -54.03935070509261 2300.8176361081487
32.81314385932345 638.9802695026084 -13461.324896769067
216.38515960372874 -568.4843531346778 -4614.6464405699035
283.7778798075224 48.66864544387722 -788.5892470115415
207.95713166429405 -96.71837292006344 -4857.923216614456
207.54726664791016 -52.46008294760028 -4852.979389166958
273.59502749275924 -140.2751522181988 -1645.787345231338
253.8155172981743 210.7319310122739 -2258.4638057275397
328.5073983053816 73.69849694371328 1123.45499801784
153.25184138972324 -92.65400545689535 -7395.17361520949
229.04278948801726 226.76474413977442 -3617.3699078938816
355.248395692949 -167.78877088453592 1692.4728924499148
205.71252585512408 39.960971948603195 -4828.800133496452
260.68133653989287 154.40870896894543 -2064.059525731288
206.54845353082192 -137.95941016198353 -4826.838775461541
-106.51792624185508 1288.6891472811176 -19117.7984654833
167.69008824188867 215.7185698407967 -6581.484946269804
152.24449088992043 -24.915389551703022 -7383.044423847731
342.751045877811 -167.13453577770244 1350.6087957257673
334.9251964432059 -48.91172912487865 1088.9163868135959
205.3153522665042 -8.00642883521721 -4812.004666243784
204.42485680789773 -50.34853415668737 -4809.30249924141
245.91138258950457 -0.8727657084367968 -2802.176455022507
343.70771527834194 -167.50119739464085 1354.368784298605
333.62852022374966 -50.779167036871726 1243.2027938350814
263.4899482814504 154.98304122270397 -1765.0791010552514
208.8858779812608 -420.18868951952857 -4612.707356870103
349.03182714745515 -16.650017846701658 1949.3351182770002
211.5758475310101 97.45379603752059 -4193.829770137272
436.95878206030767 -215.60903906048816 5930.359001252443
382.92434749987393 199.48142467700012 3185.8104557340002
202.56622819172455 -348.18863118633965 -4486.692786157906
379.07579016671616 -272.30489744021963 3154.6414472134056
272.8130868429919 -111.15886501294801 -1477.628818555198
414.6105422385623 -354.25495763237416 4281.926329667696
334.3145333846948 -44.4834435153106 1245.449889518608
336.49764221228264 -52.47410546270316 1114.4577111374126
362.4000630256705 -78.99450169402373 2061.0090248106267
245.98793978444752 419.5546678877791 -2484.742213515349
361.70030889619653 -213.8523111221297 2340.690703663902
359.6487435897085 -134.05367719962058 2348.1703304252765
96.26392596007324 552.8547578139226 -8901.990858190611
207.33667707437323 -550.6858931180792 -4591.772315661054
268.69066424837223 -46.95488537399696 -1483.7523389441176
346.2232544578799 87.13536817409965 1596.2657197927858
271.4987356311429 -131.46104968890896 -1516.9650282971254
180.87366681152452 -419.4511805403143 -5328.988919532284
279.8305957746378 -63.05458660895229 -1111.3590692730281
197.19749263032665 -73.21084818922075 -4820.605244537877
196.44744918005867 -72.62982392678708 -4818.944831861445
140.55934410937192 -78.4089628432529 -7255.141906090051
258.9288501123836 -41.00685688935565 -1940.1509517165607
269.9977188936846 -55.47802985909575 -1542.9196928250315
533.5753532329788 -1262.9428788924415 8520.591677539192
-248.01480781232934 3987.439493722092 -22290.7242266192
371.25263753780337 -213.99888714495637 2146.4526538508553
244.6567665995056 128.0892312967734 -2617.9010243926778
337.1741545361518 119.20954589804467 1274.947444504862
-185.94956880958708 714.1435886189994 -20692.986678696238
396.2442471954455 -215.60445180406168 3208.2973887712037
282.3833542592928 -69.18612670284134 -1038.9122113481617
337.81207917874707 119.56913196369354 1277.3746059068365
343.0805203446038 -93.77803973668027 1527.3380152314937
186.74532068039042 120.69802508929396 -4964.245117547988
241.2659008957447 149.6230698351772 -2670.461316722769
366.3312611798178 -81.21388275570237 2041.8244150802764
258.86965400176507 43.555562011522916 -1630.6338236021015
171.07169406361936 -741.7849578909857 -5794.873220052824
398.6397807660396 66.71954559280546 3814.3986735909234
336.632267270184 109.06748000481608 1247.8035248741257
-479.32604610080864 1838.8173431316434 -31776.511277867317
366.2108249237289 -157.0083554510369 2394.79377289831
549.7090017486503 336.91604253233106 9950.220244510567
-29.641294544016823 1231.6422345283452 -13567.146279260267
194.79401211955798 -539.2020624745351 -4624.876996578137
401.97732019533106 -214.55390296294718 3252.936130399423
340.37172702533906 -48.47063974577072 1106.7155813807858
177.18681472816715 1039.847618830168 -5112.24228091488
368.14020659242874 -35.9716665408116 2401.3275506137
341.0619739892553 -216.65176557783386 1323.6342196542719
282.51122777491054 89.2679291794853 -931.3210192259191
180.23309471236533 664.8589262482067 -4570.071244594428
456.54954022172853 -1034.9017409301284 5699.2901792355415
282.49253760674475 89.20299830374849 -931.2304241410812
369.7151047210002 -34.39312506030843 2411.755937303246
190.42625931207374 -567.0183843118148 -4634.165878800782
182.4956339628206 11.184903878626095 -4794.642590221301
336.65483025504 15.60492801304343 1115.8691008725334
381.46093178119105 111.97455178470358 2764.181583077199
215.84034000636476 302.1454742949558 -3486.5174675873504
344.1416087327189 -126.81050538114702 1423.8228258553995
-9.026289075045915 1184.0455200388053 -12093.669248007764
378.96758227186166 28.921089294523764 2730.190413448701
278.1531163842695 -4.056917072174284 -894.7622670347889
278.1531163842695 -4.056917072174284 -894.7622670347889
163.08586744213773 -452.75718184311694 -5611.594241570766
341.6577196788592 -36.97845146082867 1077.7521438428475
370.28193566882646 48.059588037995475 2389.7991841345242
280.11316153386696 107.37825233725904 -1002.5312980493262
243.9946482974623 91.11949013931864 -2329.654103203981
746.0760141369436 258.8276869685336 15215.684081873113
90.07953448135275 1183.4191176367 -7872.96322154758
276.62585402814466 -35.03090953073475 -1044.5989141073644
217.33011083880626 -88.75717847297479 -3116.693659084808
250.44572908423947 182.59955643585724 -1872.5816412598847
125.23912030015632 1226.9937766184685 -6399.468428609955
337.9637407395323 79.89429095595273 1157.1690175666783
344.5308154280553 -39.13304665243929 1140.9574892605508
345.66514106991025 -169.55180933014205 1309.5215812816962
450.15890107835827 -229.0904593542471 5082.349993935445
353.5491689143112 -193.80354905887714 1574.7814632159902
407.38439095209503 124.20435593871629 3197.697186744005
123.81499361873074 214.2079406211901 -6444.853583683648
497.93163672129964 -447.74305669431556 6732.642666706522
380.6639788534105 -205.71047568678043 2457.8166709140464
117.91246576162266 947.4847759822597 -6460.930019813265
120.5007893387695 354.8210608435929 -6437.4543999453
120.08085758570948 353.43730428838313 -6415.12717225231
401.7634382491813 -53.92156663168461 3205.540443683151
